# .PCD v0.7 - Point Cloud Data file format
VERSION 0.7
FIELDS x y z intensity normal_x normal_y normal_z curvature
SIZE 4 4 4 4 4 4 4 4
TYPE F F F F F F F F
COUNT 1 1 1 1 1 1 1 1
WIDTH 620
HEIGHT 1
VIEWPOINT 0 0 0 1 0 0 0
POINTS 620
DATA ascii
-2.1944969 3.3860769 0.20360593 56.96875 -0.53452635 0.84479094 0.024696425 5
-2.0057774 3.3659945 0.17316037 57.153847 -0.4177832 0.9081862 0.025595048 5
-1.8896319 3.3819396 0.1848643 48.583336 -0.49737287 0.86536902 0.061291371 5
-1.7514871 3.369354 0.18726176 34.34536 -0.45298123 0.89043748 0.043920837 5
-1.6428376 3.3684425 0.20977965 68 -0.44813648 0.89264262 0.048609585 5
6.4229546 3.3688309 0.22146858 29.779696 0.88315964 0.46852329 0.022693748 5
6.4947062 3.3686194 0.22789426 38.05386 0.8724252 0.48812777 0.02460764 5
6.6035266 3.3195245 0.17093419 41 0.83176547 0.55233085 0.055649329 5
-2.314657 3.5046091 0.26332098 15.541667 -0.54354066 0.83721089 0.060344696 5
-2.2062459 3.5023317 0.1951765 51.236843 -0.49860641 0.86610407 0.03543207 5
-2.0339754 3.5549772 0.19381605 51.07143 -0.53601164 0.84387696 0.023732908 5
-1.8197278 3.5342638 0.17856453 45.895832 -0.47842124 0.87783605 0.022736736 5
-1.7747297 3.5141191 0.18300958 35.360657 -0.44134599 0.89605337 0.047979452 5
6.4137487 3.5237424 0.22488981 28.538561 0.88114327 0.47230014 0.02278294 5
6.4776978 3.5085497 0.23359008 37.80294 0.88108623 0.47241461 0.022615748 5
-2.3290825 3.6769855 0.23165815 43.5 -0.54780614 0.8347038 0.056373671 5
-2.1926897 3.6868925 0.20896061 38.4375 -0.40636268 0.91348374 0.020417362 5
-2.0511312 3.6561234 0.21336679 33.200001 -0.52317566 0.85222256 0.0019816435 5
-1.8311745 3.6847746 0.17949811 37.340427 -0.43769169 0.89799851 0.044996042 5
-1.7844746 3.6257207 0.17897822 38.466667 -0.45117423 0.89178389 0.034106955 5
6.3962879 3.6720908 0.22127798 30.802544 0.86511821 0.50114924 0.020495545 5
6.4698048 3.6432326 0.2332934 33.025467 0.86906427 0.49401313 0.026041994 5
-2.4319897 3.8581481 0.28599587 0.69999999 -0.5319947 0.84438801 0.063170686 5
-2.3028805 3.8221049 0.21561667 40.552631 -0.50735599 0.86048704 0.046389066 5
-2.2135994 3.8192635 0.17998846 61.916668 -0.50991118 0.85907692 0.044468127 5
-2.0352781 3.8597376 0.20211536 56 -0.6082713 -0.51893693 0.60059178 5
-1.8499765 3.8255951 0.18303873 32.092308 -0.44774818 0.89291346 0.047192842 5
-1.7774668 3.7856212 0.18724976 57.1875 -0.39508024 0.91673511 0.059230924 5
6.3835688 3.8230298 0.22213267 30.963449 0.85812753 0.51291716 0.023088381 5
6.4595685 3.7929909 0.24078749 39.613888 0.86308819 0.50460571 0.021258738 5
-2.42172 3.9874892 0.2709012 3.7 -0.52739686 0.84756947 0.0589789 5
-2.3159723 3.9781301 0.19743589 45.370968 -0.44999251 0.89174753 0.047885604 5
-2.2074091 3.9525294 0.19923769 53.92857 -0.23468396 0.97137845 0.036706861 5
-2.0022526 3.9811268 0.19936275 45.111115 -0.45768046 0.88806254 0.043284915 5
-1.8789743 3.972203 0.18431559 33.408535 -0.41192323 0.91041297 0.038308114 5
-1.794796 4.0168967 0.1881673 66.5 -0.42004329 0.90643018 0.044136502 5
6.284512 3.9998355 0.23051141 26.975225 0.83307767 0.55270362 0.02236692 5
6.3665252 3.9751172 0.22292848 28.156487 0.83520991 0.5495432 0.020659015 5
6.4752641 3.9431503 0.20401227 27.333334 0.85159892 0.52381182 0.020011038 5
-2.4271004 4.1253324 0.21937688 31.666666 -0.44982406 0.89279252 0.024080282 5
-2.3066683 4.1074133 0.22739129 38.700001 -0.47580519 0.87821138 0.048520271 5
-2.1726401 4.1132522 0.22964665 33.371796 -0.46824688 0.88113546 0.065917835 5
-2.0171814 4.1281018 0.23776625 31.866667 -0.44611123 0.89228868 0.069323137 5
-1.8966653 4.1374345 0.22294195 30.542637 -0.42514974 0.90353346 0.053619076 5
6.272738 4.1370363 0.22029838 28.90222 0.83274794 0.5530839 0.025084414 5
6.3513603 4.1192546 0.22568835 33.500179 0.83333039 0.55227727 0.023459928 5
6.4761128 4.0868497 0.1675798 37 0.8451255 0.53422445 0.019162303 5
-2.4434915 4.3089619 0.22179244 35.777779 -0.49651542 0.8675791 0.027909048 5
-2.3457382 4.2703748 0.19037396 51.07843 -0.54791301 0.83527017 0.045989994 5
-2.195847 4.2367029 0.20818655 42.299999 -0.47744018 0.87815344 0.029956505 5
-1.962517 4.2580032 0.25486183 0 -0.45037302 0.89058834 0.063375108 5
-1.897917 4.2213192 0.23158269 19 -0.41017407 0.91069257 0.048952349 5
6.2688069 4.3026185 0.21999027 33.348148 0.81376636 0.58075672 0.022492137 5
6.3341875 4.2621503 0.22530422 38.067268 0.80983907 0.58623594 0.022089442 5
6.453341 4.2629666 0.28359589 45 0.82570994 0.56370765 0.020900812 5
-2.4510202 4.4245887 0.20220207 42.095238 -0.47855887 0.87721485 0.038410999 5
-2.3619888 4.433918 0.21734318 64.428574 -0.2352647 0.97181511 0.015033511 5
3.6921692 4.4920163 0.18196808 13.090909 0.6334281 0.77343905 0.023680909 5
6.2515306 4.4421053 0.22543859 31.282917 0.80785292 0.58893782 0.022931306 5
6.3128328 4.4093595 0.22990911 42.326393 0.81672919 0.5765686 0.022850521 5
-2.5658691 4.5964017 0.29341978 3.5999999 -0.40594462 0.90852553 0.098945826 5
-2.4687567 4.5815172 0.19286416 57.75 -0.39862201 0.91630316 0.03858646 5
-2.392009 4.5736551 0.18690404 89.699997 -0.45681003 0.88916409 0.026679492 5
3.6921027 4.5324364 0.20225161 12.592916 0.63128567 0.77510613 0.026247082 5
3.7852924 4.5358992 0.20535742 27.857143 0.63689923 0.77061003 0.02279303 5
6.1395822 4.6204844 0.23729393 36.400002 0.79737896 0.60311478 0.02095902 5
6.2303977 4.58636 0.22330935 34.640167 0.79881728 0.601134 0.022997245 5
6.3367538 4.5602827 0.23221388 41.154758 0.75554591 0.65417701 0.034681894 5
-2.5905595 4.7448831 0.27388963 2.375 -0.47012705 0.88142586 0.045485675 5
-2.4902983 4.7367306 0.19321828 61.284481 -0.45120922 0.89216799 0.021133296 5
6.1380801 4.7071176 0.21694449 43.67857 0.79952902 0.60025126 0.021253739 5
6.185719 4.7131009 0.22633611 52.896824 0.79632384 0.60450751 0.020953311 5
-2.5850873 4.891448 0.24026246 31.75 -0.44892487 0.89251995 0.04329624 5
-2.5190363 4.8879004 0.19024928 57.201756 -0.43626854 0.89932871 0.029625405 5
6.1401029 4.8810811 0.16936958 66 0.77994388 0.62557405 0.01856331 5
6.2175703 4.8778729 0.22139551 104.93542 0.78196955 0.6229884 0.020229965 5
6.3183832 4.9036021 0.23496246 120.75 0.78781742 0.61567235 0.017069319 5
-2.5905187 5.0373378 0.21551828 52.984375 -0.38164157 0.92371815 0.033082739 5
-2.5265665 5.0115509 0.19209109 50.129631 -0.45336658 0.89074689 0.032075584 5
6.1083984 5.0960789 0.20952182 88 0.70873547 0.7048977 0.028518358 5
6.2015362 5.0258913 0.22439703 114.05325 0.780325 0.625045 0.020286921 5
-2.7125447 5.2259407 0.27833819 1.25 -0.47956198 0.87711072 0.026401941 5
-2.5924175 5.1679816 0.19995132 60.056252 -0.43446428 0.90020072 0.029655389 5
-2.5342553 5.1840367 0.20184131 51.333332 -0.35498187 0.93450397 0.026272196 5
3.5702412 5.2390194 0.16004506 18 0.55772763 0.82977259 0.020427482 5
3.6295745 5.2378211 0.16601959 23.25 0.56922609 0.82197601 0.018359056 5
5.9862003 5.2054143 0.21919754 40.413792 0.75367332 0.65687984 0.022031412 5
6.0627666 5.1951489 0.22526543 59.856964 0.74887806 0.66240591 0.020001952 5
6.1778808 5.1646514 0.22695294 110.41012 0.74732423 0.66425848 0.016346658 5
-2.7476599 5.3395462 0.27537608 5.8333335 -0.45715183 0.8884874 0.04002976 5
-2.6225841 5.327662 0.21151055 59.657894 -0.39760238 0.91674685 0.03856894 5
-2.5302148 5.3069696 0.19279999 98.5 -0.4485707 0.89345813 0.02273597 5
3.5694003 5.2828579 0.16914991 26.857143 0.55769175 0.82978654 0.020839671 5
3.6308682 5.2801304 0.16439113 26.23077 0.56836253 0.82256889 0.018557126 5
5.8338552 5.3699045 0.19070755 13 0.74231052 0.6699034 0.014304705 5
5.9480271 5.3395677 0.22950698 33.782295 0.73151934 0.68138975 0.024236398 5
6.0361614 5.295248 0.22188377 47.834965 0.75116843 0.6597541 0.02169143 5
6.1716642 5.2678576 0.2455858 91.699997 0.76128823 0.64818382 0.017262606 5
-2.883301 5.4121914 0.29126233 3 -0.78577548 0.60058194 0.14784534 5
-2.7519999 5.4124627 0.26185283 16.666666 -0.46271342 0.88547397 0.042804163 5
-2.6442432 5.4734087 0.23092988 62.756302 -0.42804182 0.90330988 0.028486026 5
5.9309144 5.4685988 0.22048818 17.18421 0.70948547 0.70441031 0.020891337 5
6.0195155 5.4908333 0.23486006 20 0.71265537 0.70035905 0.040243845 5
-2.7104106 5.6643209 0.21784504 58.75 -0.38564885 0.92196941 0.035319205 5
-2.6617727 5.620647 0.23052549 60.30756 -0.41911569 0.90729368 0.034062628 5
5.9590726 5.5578294 0.17536066 5.6666665 0.71681267 0.69705665 0.017077738 5
6.0382934 5.5874958 0.18183231 4.5 0.7226454 0.69095075 0.019254901 5
6.2025313 5.6591311 0.17296292 4 0.73356676 0.67961574 0.0014914834 5
-2.7156441 5.7851229 0.22863297 65.145828 -0.42591491 0.90420181 0.031866468 5
-2.6736712 5.7628574 0.22994103 54.634617 -0.41870913 0.90766025 0.028905056 5
-2.729084 5.924737 0.22500223 51.147438 -0.36686063 0.92995673 0.024368156 5
-2.6862855 5.9044938 0.23279627 57.875 -0.4279196 0.90324372 0.032180771 5
-1.3996776 5.9907641 0.24624641 54.083332 -0.21842715 0.97558403 0.022920227 5
-1.2590731 5.9803963 0.22622867 67.768677 -0.21041352 0.97716182 0.029680984 5
-1.1280441 5.9692717 0.22138542 69.939888 -0.1804325 0.98294598 0.035513971 5
-0.97352237 5.9398141 0.23683198 79.593498 -0.17196499 0.9846583 0.029598471 5
-0.81574887 5.9388542 0.23088028 89.974648 -0.1289826 0.99131829 0.025522618 5
-0.68527061 5.9482412 0.22435778 102.31836 -0.11664444 0.99276453 0.028507059 5
-0.5629499 5.985497 0.22192027 97.491768 -0.091796331 0.99529833 0.030898007 5
-2.7498834 6.0818939 0.21810947 57.373627 -0.42671183 0.90402955 0.025448112 5
-2.6988134 6.0155334 0.27066228 57.75 -0.36370552 0.92245185 0.12961845 5
-1.6773039 6.1181998 0.21573405 18.020834 -0.27157778 0.96210593 0.024447691 5
-1.56462 6.0779238 0.22431815 47.509998 -0.25623474 0.96622986 0.027270345 5
-1.4285792 6.0527635 0.22492376 69.64286 -0.21852557 0.97539341 0.029228659 5
-1.2956917 6.0187025 0.23111965 61.610359 -0.21143536 0.97688806 0.03138189 5
-1.1419356 6.0104556 0.24003014 79.366669 -0.1820451 0.98247439 0.040046014 5
-0.97464675 6.0118165 0.19640549 94.666664 -0.16362523 0.9858796 0.035610706 5
-0.82893252 6.0163336 0.19778469 94.5 -0.12889473 0.99134374 0.024975132 5
-0.67751133 6.0135269 0.23234026 112.92857 -0.12299155 0.99195433 0.029995611 5
-0.50574511 6.0408545 0.22078398 95.638374 -0.084364943 0.99594772 0.0311561 5
-0.38851738 6.1044888 0.22504623 96.179909 -0.069339186 0.9972105 0.02762646 5
-0.2448974 6.1366682 0.20228918 103 -0.031470764 0.999286 0.020906065 5
6.1251659 6.0944209 0.22430772 1.5 0.70661163 0.70736188 0.018416604 5
6.1736422 6.0888171 0.21854655 1.9444444 0.70698053 0.70701474 0.017572775 5
-2.7491782 6.2013683 0.22274968 30.752253 -0.38247761 0.92351705 0.028757604 5
-2.6926775 6.2099609 0.20696722 25.545454 -0.37699303 0.92600995 0.019544426 5
-1.8045924 6.2502556 0.24304147 9.25 -0.27426675 0.96109247 0.03284939 5
-1.7122866 6.2119813 0.23951021 19.64035 -0.26767305 0.96312296 0.027301414 5
-1.6307647 6.1656523 0.20596769 35.599998 -0.25868452 0.96573544 0.020914253 5
-0.32552427 6.179297 0.22127166 90.190857 -0.048332348 0.99851185 0.025258463 5
-0.22726771 6.2253385 0.22806185 86.905342 -0.03982332 0.9987846 0.029042233 5
-0.13666591 6.2737045 0.24493979 51.560604 -0.033848118 0.99874049 0.037037116 5
6.1387844 6.2167783 0.2205752 1.8402778 0.70555723 0.70840329 0.01881011 5
6.174408 6.2398043 0.22057593 2.0999999 0.70579153 0.70815849 0.019233478 5
-2.8668089 6.4045334 0.20319355 3.25 -0.3749786 0.92680669 0.020502292 5
-2.7985699 6.3665056 0.20962304 4.627193 -0.39476845 0.91830385 0.029597498 5
-1.8383553 6.3794179 0.23010676 4.75 -0.27737013 0.9603287 0.028887678 5
-1.7776362 6.3261757 0.21959244 7.75 -0.2699126 0.96253955 0.025783446 5
-0.17125399 6.3505135 0.22659187 46.222221 -0.02765934 0.99915272 0.030477028 5
-0.12695058 6.3817801 0.22659756 35.098289 -0.022770638 0.99936795 0.027297521 5
6.1342912 6.3890295 0.22433104 1.26 0.67783809 0.73495448 0.019423898 5
6.1686668 6.3671932 0.22576205 1.2413194 0.68536502 0.72797441 0.018110635 5
-2.8743553 6.5241113 0.23358759 1.7571429 -0.40536994 0.91374075 0.027441276 5
-2.8309953 6.5127211 0.22198455 2.55 -0.38201982 0.92386848 0.022976615 5
-1.8781562 6.47544 0.21720508 0 -0.28127065 0.95941764 0.020113524 5
-0.16677576 6.4768748 0.23272167 37.166668 -0.022163412 0.9995563 0.019897886 5
-0.092963994 6.5357533 0.21906373 38.081818 -0.0149512 0.9994911 0.028177647 5
5.5129557 6.5369854 0.22498339 7.1857142 0.64875478 0.76076579 0.018778667 5
5.5628281 6.5131574 0.24359363 4.6666665 0.64854455 0.76075691 0.025276929 5
5.9667873 6.5872498 0.23267123 3.1111112 0.64540005 0.76359409 0.01956605 5
6.1137056 6.520483 0.22635724 1.9047618 0.68345749 0.72971117 0.020189457 5
6.166687 6.4881625 0.22027084 1.4107143 0.67967582 0.73318088 0.022059981 5
-2.8929443 6.6554427 0.21680723 2.1500001 -0.39289394 0.91925281 0.024671653 5
-2.8403716 6.6465449 0.21600161 1.7777778 -0.39193538 0.91971296 0.022688771 5
-0.16288479 6.6767578 0.17722304 68.5 0.0097028837 0.99916834 0.039606299 5
-0.061924286 6.652462 0.23104788 40.418034 -0.014217916 0.99930298 0.034517016 5
1.2853395 6.6902695 0.1792344 14 0.55070072 0.83454049 0.016457561 5
1.3648715 6.7461801 0.20027594 3 0.017776491 0.99967092 0.0184903 5
5.4779058 6.6226177 0.24228825 1 0.64129692 0.76670617 0.029998388 5
5.9533501 6.61482 0.23492941 2 0.66883367 0.74312234 0.020754635 5
6.0859179 6.6302776 0.24160677 3.284091 0.67318606 0.73916113 0.021480093 5
6.1577692 6.6239204 0.23054256 3.5 0.67526966 0.7373758 0.016964976 5
-2.9280217 6.8173819 0.22408834 2.7804878 -0.34708583 0.93733358 0.030611614 5
-0.17945239 6.8523579 0.18682458 57.596153 0.0064286622 0.99924219 0.038389046 5
-0.11282685 6.8539801 0.21072847 46.111111 -0.027290991 0.99896985 0.036256731 5
-3.0103784 7.0218716 0.19475314 2.5 -0.40223631 0.91529912 0.020821214 5
-2.9542475 6.9714985 0.22218603 2.6851852 -0.39273658 0.91949362 0.017014714 5
-0.17079484 6.9280057 0.23925559 68.75 -0.036514778 0.99894279 0.027927816 5
-0.10424718 6.9730253 0.23274332 44.835819 -0.024452919 0.99935186 0.026417786 5
0.0069735013 7.0127268 0.28638038 11 -0.0053914436 0.99850571 0.054380178 5
0.98135698 6.9752264 0.16116725 1.75 0.031309418 0.99934852 -0.017949663 5
1.0885278 7.0122185 0.22041887 4 0.15223131 0.98824209 0.014256808 5
-3.0195937 7.136682 0.21444951 5.2678571 -0.37803233 0.92538095 0.027597833 5
-2.9772744 7.1520824 0.2186145 7.9242425 -0.38742027 0.92151493 0.026752703 5
-0.061594509 7.0917101 0.25524479 26 0.0051282998 0.99930072 0.037038174 5
0.012319398 7.171546 0.29126325 6 0.00099357788 0.99916673 0.040803209 5
-3.018141 7.278986 0.24576306 32.18182 -0.39132303 0.91965234 0.033255074 5
-2.9606376 7.2602696 0.22883913 27.989361 -0.38907981 0.92057264 0.034102615 5
-2.8072939 7.3190193 0.2759051 45 -0.36423865 0.93110138 0.019504387 5
-0.0010398162 7.2342792 0.23684937 1 0.0038869148 0.99862158 0.052343126 5
0.073997997 7.2306652 0.27902919 68 0.22130638 0.97400135 -0.048424244 5
5.6684813 7.2969089 0.22690126 35.479168 0.61362976 0.78938329 0.018234553 5
5.7237382 7.2611713 0.22906961 31.007812 0.61802399 0.7858997 0.020197427 5
-3.0245619 7.4023719 0.22337349 59.01852 -0.38880897 0.92106348 0.021668347 5
-2.9249442 7.4313803 0.2184594 88.353683 -0.3653602 0.93058932 0.022703383 5
-2.7772381 7.455204 0.22797121 101.63761 -0.34620532 0.93787581 0.023038277 5
-2.643286 7.4648209 0.23251827 90.257355 -0.33744052 0.94094026 0.027664531 5
-2.5433655 7.4732895 0.25683323 78.666664 -0.33467674 0.94188344 0.029104289 5
5.6364779 7.4345331 0.22219357 41.961906 0.59795523 0.80138975 0.014971134 5
5.7262707 7.3941517 0.24084285 39.111111 0.61400938 0.789114 0.017075667 5
-2.9689889 7.5344172 0.15363149 83 -0.38167381 0.92408311 0.019888148 5
-2.7468314 7.5189018 0.1991092 90.75 -0.3203727 0.94716722 0.015352149 5
-2.599211 7.5235844 0.21341613 92.962959 -0.31845045 0.947474 0.029704241 5
-2.5341523 7.5603242 0.22554702 83.210526 -0.35334229 0.93493199 0.032427799 5
5.53582 7.6282959 0.24634545 37 0.58732593 0.80920959 0.015102698 5
5.6087923 7.5930963 0.22702035 34.591347 0.58073318 0.81391728 0.01695759 5
-2.5803075 7.7083197 0.21867664 83.5 -0.31603438 0.94848913 0.022150662 5
-2.4904511 7.7550511 0.22962248 106.50603 -0.30383369 0.95249492 0.020942574 5
-2.3550997 7.7914877 0.21422674 91.153847 -0.28679258 0.95775026 0.021552814 5
5.5198717 7.6794653 0.23059027 33.5 0.58801335 0.8087219 0.01446222 5
5.5975409 7.7340746 0.22422047 35.8125 0.58520472 0.81074971 0.014848995 5
-2.4841144 7.8103032 0.24487591 106 -0.29240638 0.95610869 0.018830944 5
-2.3219647 7.8110857 0.23234689 76.071426 -0.2876901 0.95744842 0.022954378 5
5.5199423 7.927361 0.21854664 32.619564 0.57844704 0.81556511 0.015892137 5
5.5978336 7.8975329 0.22465828 34.239727 0.56667691 0.82378364 0.016056757 5
-0.93535566 8.0780878 0.18667932 106.33334 -0.12196907 0.99243999 0.01366014 5
-0.80651945 8.0915022 0.19088711 110.71429 -0.088598765 0.99596649 0.014176055 5
-0.70957053 8.0813141 0.2479527 98.25 -0.082476363 0.99614328 0.029934801 5
-0.53935611 8.0965242 0.15647183 111 -0.058624811 0.99815488 0.015809627 5
-0.38811547 8.0933428 0.22120307 108.5 -0.058624811 0.99815488 0.015809627 5
5.4944692 8.0238667 0.23029731 32.298969 0.57109857 0.82070273 0.017130535 5
5.5846548 7.9665112 0.27030066 29 0.57287532 0.81942463 0.018895729 5
-0.82720804 8.1070566 0.2193094 110.66666 -0.093219906 0.99551892 0.015880313 5
-0.67237622 8.1245785 0.21412572 97.939392 -0.081468508 0.99637753 0.024384804 5
-0.50456244 8.1532431 0.2099048 96.130409 -0.060994644 0.99796921 0.0183609 5
-0.38101637 8.1814308 0.22525825 110.8125 -0.050993934 0.99852014 0.018898264 5
-0.22197653 8.2065439 0.2290401 113.46365 -0.020363545 0.99960774 0.019226788 5
-0.071182147 8.2297859 0.22534844 111.37841 -0.017673427 0.99966317 0.019005638 5
0.046985045 8.2342329 0.21752974 107.66009 0.017833384 0.99964184 0.019952245 5
0.18051682 8.2318916 0.26770121 109.875 0.017776491 0.99967092 0.0184903 5
5.3840551 8.2042274 0.15925494 27 0.54652441 0.83731848 0.014452226 5
5.4836125 8.199791 0.22140956 42.420212 0.55469823 0.83190608 0.015562161 5
5.5564256 8.2377167 0.27132592 66 0.55836612 0.82950342 0.012303103 5
-0.19694927 8.2710686 0.21729736 124.8 -0.017358566 0.99969214 0.017730156 5
-0.049457811 8.2659712 0.22298631 114.61111 -0.01592708 0.99969298 0.018981071 5
0.076901995 8.2725573 0.22109036 117.91338 0.017140949 0.99967593 0.018821772 5
0.22300404 8.2957697 0.22171515 117.68623 0.0182964 0.99965215 0.018994762 5
0.37691092 8.322197 0.22064941 120.01286 0.052090548 0.99846703 0.018714903 5
0.52380115 8.3482237 0.22656515 118.00465 0.061308235 0.99789906 0.0209508 5
0.67070645 8.3745317 0.2319136 124.41667 0.080857612 0.99643868 0.023917172 5
0.79910898 8.3895502 0.22552839 124.64315 0.092144415 0.99546558 0.023615953 5
0.9400841 8.3902617 0.24024048 100.125 0.11476019 0.99309993 0.024136387 5
5.3779321 8.3903933 0.26138452 31.333334 0.53988713 0.84106356 0.033673696 5
5.4504418 8.3456316 0.2233419 37.700001 0.54913855 0.83553344 0.018187659 5
0.55490381 8.4207487 0.20378982 113.0625 0.062679105 0.99785727 0.018767642 5
0.67484164 8.4136362 0.21364869 109.63043 0.081669547 0.99649566 0.018068375 5
0.83924663 8.4167013 0.22664079 116.14719 0.094963349 0.99519116 0.024011994 5
0.97720051 8.4380674 0.21611951 99.631775 0.11823899 0.99275345 0.021451931 5
1.1267565 8.4689569 0.21461403 101.32324 0.12386261 0.99211472 0.019145504 5
1.2676004 8.4949436 0.20605393 88.218536 0.1535795 0.987984 0.017352069 5
1.4224472 8.5228014 0.22221085 98.8536 0.15676801 0.98747993 0.017527156 5
1.5548903 8.5365992 0.22674672 114.20202 0.18684548 0.98219818 0.019380236 5
1.7026782 8.5424395 0.23214462 125.36667 0.19001092 0.98160356 0.018715374 5
5.3885918 8.4567995 0.19823475 34.272728 0.53215605 0.84644413 0.018501975 5
5.426755 8.4536247 0.23502551 37.461113 0.53690523 0.84336942 0.0214648 5
1.3328539 8.6029625 0.25083345 0 0.15527306 0.98769814 0.018510865 5
1.4493893 8.5608473 0.22996052 77.015877 0.15625487 0.98755074 0.018106515 5
1.5813793 8.5663242 0.22195837 115.04412 0.18957309 0.98170274 0.017938491 5
1.7290411 8.5866699 0.22528858 116.98311 0.19073534 0.98149854 0.016751392 5
1.8797839 8.6137104 0.22151549 116.07574 0.2199963 0.97534841 0.01724083 5
2.0241113 8.6430597 0.22145547 116.30556 0.22492221 0.97421896 0.017529821 5
2.172662 8.6690731 0.21929023 115.32734 0.24786904 0.96858352 0.020173652 5
2.3047333 8.6830797 0.22178359 116.74005 0.25485572 0.96673709 0.021632427 5
2.4509389 8.686203 0.22264667 133.08928 0.27166677 0.96214515 0.021767132 5
2.5879498 8.6915693 0.21491228 150 0.27752447 0.96046954 0.021872975 5
5.3826838 8.6339083 0.22260827 40.694443 0.53017402 0.8476975 0.018013492 5
5.421525 8.6001205 0.23565409 41.67347 0.52025497 0.85377449 0.020096952 5
2.2029083 8.7115803 0.22551689 108.78571 0.25010589 0.96800309 0.02042303 5
2.3376672 8.7170315 0.2277447 111.60902 0.2568472 0.96622336 0.021023514 5
2.4680071 8.7332964 0.22551794 110.73328 0.27708369 0.96061158 0.021213796 5
2.6267571 8.760848 0.21964639 111.57402 0.28061482 0.95965797 0.017659318 5
2.7751341 8.7886219 0.22761226 111.70293 0.30475363 0.95225596 0.018270144 5
2.9237876 8.8149176 0.22558002 109.89999 0.30724806 0.95146579 0.017646454 5
3.0635664 8.8341494 0.22142166 109.08398 0.33590579 0.94173187 0.017562307 5
3.1981189 8.8404255 0.21401237 118.95139 0.33562824 0.94182396 0.017924501 5
3.3307908 8.8415632 0.21860631 120.33334 0.35779929 0.93367171 0.015389507 5
3.8990862 8.8440495 0.2908192 34 0.40563431 0.91376287 0.022320814 5
3.9151499 8.8340168 0.26735291 71 0.39438266 0.91835845 0.032865334 5
5.3465657 8.7711582 0.22324562 37.213673 0.51670027 0.85604769 0.014253944 5
5.4163585 8.7233257 0.22153996 37.923077 0.51007378 0.86003542 0.01279903 5
2.8270159 8.8553543 0.26970977 105 0.30389678 0.95258152 0.015335361 5
2.956136 8.8592014 0.23979907 108.14286 0.31050956 0.9504407 0.015689082 5
3.088815 8.8657331 0.22362916 105.9602 0.33628723 0.94159871 0.017402081 5
3.2286239 8.883193 0.22124855 105.57697 0.33721498 0.94127709 0.016840823 5
3.374187 8.907691 0.22922125 108.74268 0.36125049 0.93228799 0.01836084 5
3.5280058 8.9335699 0.22550063 108.31148 0.3638165 0.9312517 0.020194883 5
3.6748054 8.9588881 0.23211974 103.28185 0.38212883 0.92388147 0.020508166 5
3.8182986 8.928936 0.2320309 81.614975 0.39045665 0.92045724 0.017376935 5
3.9566264 8.9438553 0.24136944 71.414474 0.41433689 0.9099111 0.019668043 5
4.0682082 8.9878387 0.26942623 66.75 0.40906635 0.91207558 0.027981386 5
5.3553758 8.9304075 0.21977283 48.420456 0.50403947 0.86354971 0.015036601 5
5.4106565 8.93262 0.24231927 53 0.57309371 0.81931162 0.0170903 5
3.5685971 9.0105352 0.22435604 105.75 0.36908165 0.92910308 0.023373082 5
3.715589 9.0123348 0.20452349 108.46154 0.38034236 0.92467457 0.017796643 5
3.8481047 9.011878 0.18968228 101.53846 0.38514864 0.92271817 0.015866008 5
3.9782407 9.0259781 0.20434308 97.536079 0.41143319 0.91127574 0.017299896 5
4.1221728 9.0557957 0.23036876 96.917183 0.41132167 0.91128641 0.019274954 5
4.2770939 9.084178 0.22765538 95.938972 0.42818558 0.90353686 0.016680574 5
4.4238405 9.1103992 0.22506174 99.503731 0.43118298 0.90212989 0.015584205 5
4.5614843 9.1299753 0.22864726 94.797104 0.45151767 0.89208549 0.01775457 5
4.6976061 9.1410542 0.22985137 101.03472 0.45438451 0.89059359 0.019435473 5
4.8163176 9.147212 0.1846635 107 0.47238374 0.88128698 0.013671199 5
5.2353768 9.1151991 0.22651269 64.833336 0.4798744 0.87724525 0.012705632 5
5.3102922 9.0675526 0.22216702 72.731941 0.48761117 0.87293857 0.014611842 5
5.4192128 9.0085516 0.21160455 53 0.51483566 0.8572154 0.01122198 5
4.4819574 9.1660614 0.23302332 82.464287 0.43314245 0.90120935 0.014467122 5
4.5971022 9.1648722 0.2147882 90.175591 0.45295832 0.8914209 0.014049673 5
4.7313657 9.1781044 0.22482726 91.184647 0.45562238 0.89005691 0.014386334 5
4.8704686 9.19981 0.22810648 93.99897 0.47244141 0.88124651 0.014270192 5
5.0274734 9.2283916 0.22687645 90.162575 0.47224969 0.88131207 0.016405284 5
5.1826158 9.2408094 0.21772824 90.168854 0.49088955 0.87105227 0.017187506 5
5.2658606 9.2130432 0.23422027 82.285713 0.50776976 0.86134845 0.015771 5
-3.3913121 -14.29284 0.33336088 2 -0.18166633 -0.98279583 0.033311717 5
-2.880403 -9.6574783 0.42650828 38 -0.2870287 -0.95685834 0.045129783 5
-2.9086905 -9.3023911 0.41895792 34 -0.1848105 -0.98228836 0.030898392 5
-2.9227295 -9.2214031 0.3728838 38.285713 -0.30335736 -0.951653 0.048277587 5
-3.056699 -9.0793743 0.37249663 62.142857 -0.32123762 -0.94587785 0.046060152 5
-2.9686012 -9.1076412 0.37989098 63.599998 -0.30681583 -0.95082921 0.042283561 5
-3.1719458 -8.8643808 0.30222374 64 -0.32934773 -0.94325668 0.042391289 5
-3.100018 -8.9190512 0.38904935 46.714287 -0.32302067 -0.94536769 0.044017985 5
-3.1834428 -8.7347345 0.40928838 31 -0.32800585 -0.94360673 0.044929098 5
-3.0995612 -8.7869768 0.35093901 36.700001 -0.33158532 -0.94220001 0.04806548 5
-4.9692926 -8.6213589 0.39273876 85.785713 -0.47089899 -0.88140196 0.037212938 5
-4.9061499 -8.6463451 0.37193376 85.272728 -0.44768605 -0.89310116 0.044131689 5
-4.747304 -8.6429787 0.37874243 52.81818 -0.42781159 -0.9027046 0.045842644 5
-4.5498137 -8.625247 0.36310303 40.777779 -0.47528726 -0.87898415 0.038585272 5
-4.403111 -8.5784178 0.38039485 37.166668 -0.4533287 -0.89011788 0.046725962 5
-4.2514682 -8.5800486 0.36423323 25.5 -0.44890067 -0.89276767 0.038131803 5
-4.1297317 -8.5701103 0.35654604 31 -0.42573622 -0.90349627 0.0494297 5
-3.1856856 -8.6085415 0.37405553 62.285713 -0.33330238 -0.94193649 0.040806707 5
-3.1161559 -8.6548395 0.38097462 53.625 -0.34197554 -0.93850303 0.047588442 5
-4.9847398 -8.4534798 0.39331785 82.800003 -0.49350557 -0.86902857 0.035235874 5
-4.9162292 -8.5016937 0.37479365 81.333336 -0.37436113 -0.92553306 0.056941584 5
-4.2517056 -8.5284672 0.37367573 49.799999 -0.4539752 -0.88976842 0.047101822 5
-4.135376 -8.5205965 0.39383996 24.166666 -0.42788982 -0.9027167 0.044864889 5
-3.9772866 -8.4961281 0.39195448 43.599998 -0.42421734 -0.90422338 0.049190391 5
-3.8249929 -8.4667912 0.39837533 52.192307 -0.40540701 -0.91288102 0.04788892 5
-3.6977189 -8.4378214 0.36434954 61.81818 -0.39950654 -0.9158631 0.039866809 5
-3.5254173 -8.421772 0.36758915 64.849998 -0.38105038 -0.92348611 0.04442944 5
-3.3585556 -8.4270401 0.35879865 55.799999 -0.37290511 -0.92683399 0.043823853 5
-3.2196498 -8.4615536 0.38586792 51.777779 -0.3416993 -0.93874615 0.044688851 5
-5.0198345 -8.3143005 0.37894061 71.555557 -0.51502585 -0.85617113 0.041464411 5
-4.9343143 -8.3508787 0.31886879 86 0.24793929 -0.96806407 -0.037120771 5
-3.6434884 -8.375227 0.33027694 62.5 -0.40406308 -0.91441232 0.024147756 5
-3.5104363 -8.379117 0.3695004 46 -0.38364807 -0.92256206 0.041151479 5
-3.3734245 -8.3706551 0.35835424 68.769234 -0.37708059 -0.92513412 0.044012848 5
-3.2618392 -8.3721752 0.38350904 50.333332 -0.35718027 -0.93287802 0.046485569 5
-5.0368581 -8.1824903 0.36856103 76 -0.52002823 -0.85301012 0.044094425 5
-5.0577216 -8.0357618 0.39482561 89.5 -0.50780636 -0.86008245 0.048896518 5
-5.1137609 -7.8653316 0.36981511 75.166664 -0.5397827 -0.8407613 0.04189273 5
-5.0864964 -7.8910217 0.38789541 89.777779 -0.50367182 -0.8625989 0.047307163 5
-5.1303949 -7.7320971 0.38191679 83.833336 -0.5510605 -0.83334154 0.043291707 5
-5.0806913 -7.7313743 0.36788586 89.166664 -0.55145836 -0.83284563 0.047559295 5
-5.1425781 -7.5911989 0.37126985 87.46154 -0.55661035 -0.82963634 0.043456241 5
-5.1775432 -7.4169016 0.38729784 89.111115 -0.57830125 -0.81481808 0.040486366 5
-5.2102575 -7.2852716 0.38282382 96.307693 -0.58012342 -0.81320101 0.046486441 5
-5.2601161 -7.0797615 0.39236155 97.5 -0.59730577 -0.80042839 0.050401323 5
-5.2209206 -7.1467237 0.37389502 95.647057 -0.59178185 -0.80472523 0.047028136 5
-5.2583437 -6.9851136 0.41963077 99.400002 -0.59384578 -0.80300272 0.050337624 5
-5.2405882 -7.009573 0.39062515 97.5 -0.59508532 -0.80203044 0.051190939 5
-5.2844367 -6.8553915 0.39718175 47.200001 -0.60586572 -0.79391998 0.051163774 5
-0.62977642 -4.3976855 0.3580406 52.846153 -0.13062125 -0.98807132 0.081567414 5
-0.51198542 -4.3912067 0.38133985 70.926826 -0.080937847 -0.99181992 0.09870255 5
-0.37593505 -4.3697963 0.38604715 76.398438 -0.069320306 -0.99322265 0.093292028 5
-0.2438764 -4.3602791 0.36869046 80.147057 -0.047087338 -0.99412513 0.097457401 5
-0.078629993 -4.3556342 0.33876401 112.5 -0.035012759 -0.99408472 0.10280848 5
-0.93762851 -4.2515264 0.3791202 8.986207 -0.21347269 -0.97207892 0.097426556 5
-0.8354004 -4.2269049 0.37459707 11.529999 -0.16748126 -0.98116612 0.096245646 5
-0.7474857 -4.2043819 0.32512212 8 -0.10997802 -0.99337816 0.033236273 5
-0.34773126 -4.3407946 0.37462166 76.333336 -0.039407399 -0.99294674 0.11182026 5
-0.21335894 -4.3256416 0.3763417 82.641594 -0.030949656 -0.99405283 0.10440787 5
-0.070093453 -4.2997093 0.37848508 90.967628 -0.027082607 -0.99470955 0.0990934 5
0.074874707 -4.2763667 0.36337379 103.43262 0.02818268 -0.99474686 0.09840931 5
0.22082087 -4.2526441 0.36068994 108.9116 0.04979245 -0.99471444 0.089799315 5
0.38556349 -4.2230844 0.36679015 110.99953 0.090848364 -0.99139965 0.094197184 5
0.49773932 -4.2116442 0.3787095 112.32507 0.10988595 -0.98876011 0.10138287 5
0.64632541 -4.2054534 0.37312454 119.57143 0.16172327 -0.98240471 0.093416534 5
-0.92552477 -4.1926003 0.35114691 10 -0.20043883 -0.97574025 0.088064663 5
-0.78380036 -4.1753068 0.38360164 7.9827585 -0.1554594 -0.98346198 0.092923902 5
-0.67361873 -4.1156907 0.36096504 4.7573223 -0.13533063 -0.98572403 0.10016872 5
-0.57748383 -4.0635338 0.38098887 3.8484848 -0.10386407 -0.99083126 0.086403549 5
0.050479893 -4.1989636 0.38788155 112.5 0.031795233 -0.99424922 0.10226204 5
0.25313485 -4.1867356 0.36617303 116.4375 0.061137702 -0.9949792 0.079237826 5
0.38962784 -4.1830115 0.37289503 111.78549 0.091876812 -0.99115795 0.09573181 5
0.53596842 -4.1796608 0.3775509 113.69708 0.12279956 -0.98710108 0.102722 5
0.67856741 -4.1594057 0.37424186 116.5776 0.16273849 -0.98202497 0.095620319 5
0.81875509 -4.1325388 0.37118995 118.21213 0.17709208 -0.97905898 0.10040935 5
0.97802907 -4.1033816 0.37577134 122.88383 0.24687904 -0.96338302 0.10461272 5
1.1184165 -4.0789251 0.37954327 120.50191 0.25107399 -0.96218252 0.10567232 5
1.2616334 -4.0624475 0.38060614 124.001 0.31079468 -0.94490159 0.10279888 5
1.3901668 -4.0665874 0.3673473 134.15741 0.31419221 -0.94347328 0.10555326 5
1.6062161 -4.0636029 0.3516168 145 0.37626514 -0.92032081 0.10693068 5
-0.62066358 -4.0177426 0.41212669 3.4615386 -0.16383809 -0.98072708 0.10644948 5
-0.51224595 -3.9923742 0.38668326 5.3868613 -0.11824771 -0.98697793 0.10905048 5
-0.40662867 -3.9270926 0.38402233 7.5482326 -0.10084572 -0.98911673 0.10713696 5
0.78924024 -4.0471416 0.37163958 117 0.19081472 -0.97558993 0.10869261 5
0.96718484 -4.0389762 0.37684512 116.88889 0.24181303 -0.96435291 0.10747061 5
1.1400539 -4.0321712 0.37181646 119.86383 0.25134942 -0.96201885 0.10650398 5
1.2955626 -4.0303674 0.37728435 122.75335 0.31364197 -0.94399846 0.10244876 5
1.42193 -4.0146723 0.37516788 120.78238 0.31930703 -0.94208956 0.10252012 5
1.5762571 -3.9837546 0.36926997 122.63918 0.3783879 -0.92032886 0.099082984 5
1.7276034 -3.9546165 0.37069675 122.48138 0.38954681 -0.91608042 0.095131077 5
1.8743129 -3.9272003 0.37142321 121.89235 0.43511406 -0.89562154 0.092399612 5
1.9992036 -3.9122617 0.3749423 119.76992 0.44481727 -0.89064163 0.094313219 5
2.155066 -3.9084537 0.32994828 139.625 0.50417727 -0.85926378 0.086435631 5
2.2888622 -3.9011486 0.37525326 108 0.50371778 -0.85830152 0.097912177 5
-0.47084439 -3.8949625 0.35098657 8 -0.09851113 -0.98909259 0.10950554 5
-0.34260046 -3.8678014 0.38687021 7.4609709 -0.095960453 -0.98930782 0.10982574 5
-0.24069218 -3.8029206 0.36888885 7.7305894 -0.063031062 -0.99201471 0.10924233 5
-0.13759594 -3.7622581 0.35889536 6.5333328 -0.039771229 -0.99227649 0.11749704 5
1.7542255 -3.8908837 0.35915625 123.05 0.40199885 -0.91201764 0.081367299 5
1.9019487 -3.8837621 0.3767308 127.79143 0.43782479 -0.89448786 0.090558715 5
2.0361841 -3.883817 0.37277642 120.34344 0.45395786 -0.88561666 0.098006316 5
2.1759329 -3.8614857 0.36977434 123.33891 0.49939111 -0.86157113 0.091124825 5
2.3235033 -3.8370032 0.37093982 121.35464 0.509543 -0.8552807 0.09413258 5
2.4674649 -3.8078411 0.37838823 121.61649 0.54791343 -0.83117956 0.094506234 5
2.6242125 -3.7807837 0.37506685 118.12949 0.56005239 -0.82282966 0.096398264 5
2.7535379 -3.7627146 0.37458983 119.32214 0.59920418 -0.79529828 0.091950595 5
2.8960464 -3.7644289 0.35631227 124.66666 0.60326982 -0.79203331 0.093535021 5
-0.17178243 -3.7311647 0.36271763 9.5027781 -0.041149616 -0.9931733 0.10914886 5
-0.089113988 -3.6938918 0.35687363 8.1090059 -0.030516762 -0.99372113 0.10764243 5
0.0062898193 -3.6810405 0.3762238 0 -0.01858018 -0.9946785 0.10133811 5
2.5068581 -3.746284 0.38630965 109 0.56079721 -0.82203966 0.098779097 5
2.6559167 -3.7390022 0.36193451 115.73055 0.56498438 -0.82011288 0.090595648 5
2.7962937 -3.7366719 0.36760616 119.9032 0.60315681 -0.7923823 0.091280818 5
2.9279556 -3.7198651 0.36595649 118.98876 0.60589105 -0.79029191 0.091294587 5
3.0690632 -3.69312 0.36813748 119.81734 0.64184302 -0.7618311 0.087469317 5
3.2300959 -3.6616557 0.3725884 122.67154 0.6507073 -0.75389421 0.090683356 5
3.3715112 -3.636384 0.37648389 122.14889 0.68185782 -0.7261796 0.087938398 5
3.5118597 -3.6152098 0.37363502 122.44033 0.69634873 -0.71311283 0.081046551 5
3.6476073 -3.6089272 0.36937153 121.96667 0.7115199 -0.69840914 0.077227086 5
3.7659161 -3.6081803 0.40702567 125 0.71488672 -0.69377249 0.087273277 5
-0.039248385 -3.5871191 0.3646169 4 0.00027906056 -0.99304181 0.11776222 5
3.4090044 -3.5893652 0.3758308 121.23077 0.69273031 -0.71664876 0.080866016 5
3.5578105 -3.5871794 0.37849292 122.98949 0.70039964 -0.70943397 0.078381963 5
3.6741037 -3.5730784 0.37893668 122.23164 0.71532363 -0.69470912 0.075441331 5
3.8266134 -3.5444643 0.37612012 120.48966 0.73084515 -0.67760223 0.081979588 5
3.9686296 -3.518728 0.37320447 117.09715 0.74985874 -0.65607023 0.085344061 5
4.1302447 -3.4872904 0.37407091 116.76263 0.7577461 -0.64691812 0.085545003 5
4.2626958 -3.4675884 0.37936094 115.69812 0.78067398 -0.61988485 0.079315223 5
4.388 -3.4609559 0.37068486 119.69736 0.78069341 -0.61975211 0.080157526 5
4.5299559 -3.4580593 0.41218889 127.5 0.80236417 -0.59142119 0.080204234 5
-0.92009372 -3.3116622 0.39248496 8.375 -0.26036441 -0.9573974 0.12490223 5
-0.8896699 -3.3130016 0.35296842 8.6428576 -0.25826129 -0.96027583 0.10569439 5
4.1480408 -3.4419808 0.37431306 118.9 0.76056767 -0.64385694 0.083576396 5
4.3050976 -3.4347906 0.37021065 116.78143 0.78134018 -0.61898381 0.07979013 5
4.4300518 -3.4260483 0.37780002 115.14391 0.7820183 -0.61812198 0.079828747 5
4.5661235 -3.399091 0.37454793 114.56667 0.80290735 -0.59106559 0.07733871 5
4.7287703 -3.3695884 0.37444764 115.3159 0.80833197 -0.58371162 0.076682039 5
4.8679428 -3.3417807 0.37456852 115.73545 0.82260126 -0.56342167 0.076702453 5
5.0229921 -3.3173556 0.37237859 112.67796 0.83407348 -0.54652667 0.07503321 5
5.1592612 -3.308233 0.39046082 110.93333 0.84112257 -0.5364911 0.068483919 5
5.2577066 -3.3146658 0.34256798 124 0.83956945 -0.5389443 0.068280466 5
-0.93595481 -3.2134387 0.37684348 58.411289 -0.27215463 -0.95392054 0.12636288 5
-0.89083505 -3.2644649 0.36329708 17.484375 -0.26138964 -0.9576779 0.12053444 5
4.9102502 -3.2899067 0.39139977 118.80555 0.8297568 -0.55395955 0.068062633 5
5.0540099 -3.2889073 0.37297273 120.09607 0.83414787 -0.54636276 0.075398803 5
5.1742616 -3.277699 0.38014466 113.84341 0.8428244 -0.53373897 0.069063462 5
5.3241038 -3.2518897 0.37506998 110.13146 0.84976494 -0.52321684 0.064372085 5
5.4684067 -3.2244616 0.3784788 113.22602 0.86429709 -0.49830335 0.068442114 5
5.6244259 -3.1954634 0.37830174 108.60437 0.86571181 -0.49565995 0.069744363 5
5.7633476 -3.1723604 0.37684453 104.66265 0.87968051 -0.47113329 0.064773604 5
5.912488 -3.158807 0.38432369 106.89706 0.90788811 -0.4133423 0.069908366 5
6.0182524 -3.1636879 0.43408546 99 0.88858032 -0.45460236 0.061332852 5
-0.95974582 -3.0825038 0.37168196 69.562729 -0.29400235 -0.94627947 0.13460253 5
5.808836 -3.1385946 0.38066024 108.72962 0.88697827 -0.45718735 0.065187268 5
5.9399614 -3.1248367 0.38378027 107.55723 0.88571686 -0.46013951 0.061460197 5
6.0682845 -3.0816562 0.3745352 86.274559 0.88948774 -0.45290914 0.060702737 5
6.1987638 -3.0145497 0.34202671 51.023811 0.89326245 -0.44638169 0.053157344 5
6.3979788 -3.0269175 0.36984837 83.629631 0.90053111 -0.43189457 0.050108187 5
6.5253782 -3.0216916 0.3698746 98.606674 0.9090119 -0.41311124 0.055104293 5
6.6444402 -3.0096765 0.36877111 96.265305 0.91801029 -0.39335477 0.050289348 5
6.7549453 -3.0209951 0.3857297 125 0.91325903 -0.40327069 0.05771162 5
-1.0521903 -2.8693254 0.42379346 84 -0.34140897 -0.92908144 0.14229406 5
-0.99644238 -2.9174106 0.37739515 79.141472 -0.33700246 -0.93088311 0.14101771 5
6.1156511 -2.9722748 0.39508963 47.987705 0.90087903 -0.4295904 0.062202305 5
6.2201948 -2.9570754 0.37410972 49.582355 0.91037577 -0.41048515 0.05213397 5
6.3640785 -2.9631443 0.40115058 58.68182 0.90672308 -0.41706294 0.062543854 5
6.5489082 -2.9903018 0.38142714 96.6875 0.92694241 -0.37122026 0.05452662 5
6.6757846 -2.9819088 0.37520877 100.33083 0.91315979 -0.40355617 0.057285156 5
6.8298793 -2.9594898 0.37931284 98.038101 0.91482389 -0.39981601 0.056959033 5
6.9705381 -2.9330137 0.37556878 94.872322 0.92306799 -0.38017663 0.058405258 5
7.1235619 -2.9019444 0.37476689 92.994217 0.92344624 -0.37990221 0.054049339 5
7.2670507 -2.8803008 0.37384805 91.300781 0.93923676 -0.33919317 0.052747138 5
7.3910599 -2.8639028 0.38859028 83.466667 0.93986267 -0.33788732 0.049902033 5
7.5100646 -2.8683753 0.36645833 63 0.93073881 -0.361191 0.057151679 5
8.5839996 -2.8940938 0.33333102 6 0.94961053 -0.31024584 0.044580087 5
-1.0584271 -2.7468002 0.38754216 92.282608 -0.3398715 -0.93054068 0.13631299 5
-1.0152344 -2.7818949 0.37878323 71.714722 -0.3352676 -0.93158925 0.14048876 5
7.2970772 -2.8055928 0.37608254 82.4785 0.95190513 -0.30380723 0.039721511 5
7.4182019 -2.8017814 0.37284571 66.062889 0.9437483 -0.32639104 0.052990295 5
7.5688519 -2.7225866 0.38242361 15.849999 0.9545812 -0.29271477 0.055612128 5
7.7525964 -2.7291486 0.37523082 10.903846 0.97304273 -0.22602117 0.04585005 5
7.8695674 -2.7226896 0.37658501 8.9528303 0.9678213 -0.24583519 0.053730194 5
7.9913688 -2.712234 0.37466967 15.619047 0.95830566 -0.28212702 0.045328755 5
8.1422834 -2.7098613 0.37497658 6.2857141 0.96420527 -0.2603451 0.050285488 5
8.3047523 -2.7185407 0.39022708 1 0.94787329 -0.31397951 0.054343175 5
8.5119686 -2.7308888 0.3696726 4.4499998 0.9517194 -0.3050006 0.034710523 5
8.613019 -2.7775385 0.34783223 4.2352943 0.94997752 -0.30947706 0.042030979 5
-1.0664072 -2.604485 0.37555692 92.437828 -0.37247381 -0.91424465 0.15943648 5
-1.0392679 -2.6374624 0.38138416 80.146385 -0.37185565 -0.91463363 0.15864652 5
7.2979674 -2.5981412 0.37196723 25.872126 0.94895542 -0.31146708 0.049717501 5
7.4138422 -2.622256 0.376302 8.826087 0.969661 -0.24004672 0.046207767 5
7.5851326 -2.6679409 0.3684485 6.7769232 0.9638502 -0.26344916 0.039841346 5
7.727469 -2.674943 0.37658244 8.1216221 0.94565099 -0.32200727 0.045336314 5
7.8589478 -2.6676068 0.37268427 4.9576273 0.96401489 -0.26277095 0.040333021 5
8.0277367 -2.6693945 0.37125194 16.076389 0.9587726 -0.27983138 0.04949329 5
8.1610003 -2.6679976 0.37385827 5.25 0.96110076 -0.2720243 0.047833949 5
8.3265953 -2.6579797 0.38031578 3.1428571 0.96279877 -0.26782429 0.035898264 5
8.488718 -2.6516891 0.37854025 3.652174 0.96036083 -0.27479994 0.046820056 5
8.5856705 -2.6288557 0.38968807 3.6315789 0.95327967 -0.29917237 0.041877866 5
-1.0745717 -2.4907539 0.38573894 79.36293 -0.37398601 -0.91376191 0.15866168 5
-1.0457405 -2.5228341 0.39311948 70.561478 -0.37344298 -0.91377783 0.15984489 5
7.3092074 -2.5333645 0.37548053 21.611111 0.94940412 -0.30920306 0.055002667 5
7.3754911 -2.5320556 0.3647421 10.2 0.98323584 -0.18193713 0.012091123 5
-1.1129115 -2.3231609 0.38051042 91.958809 -0.4343977 -0.88423556 0.17154004 5
-1.0409924 -2.3683131 0.32348585 111 -0.43674678 -0.88291246 0.17238879 5
-1.1293563 -2.1935265 0.38170782 81.390198 -0.43831581 -0.88201499 0.17299935 5
7.7733154 -2.1799417 0.39758945 1 0.96176231 -0.26979735 0.047144905 5
7.8243651 -2.1534417 0.3708466 2.4117646 0.96249563 -0.26621467 0.052268207 5
-1.2058518 -2.0002677 0.38556641 99.257141 -0.51806533 -0.83491361 0.18581621 5
-1.1600947 -2.0214202 0.36874524 91.745018 -0.49097073 -0.8515377 0.18393265 5
-1.2129602 -1.8588848 0.36621645 101.88654 -0.52664715 -0.83165771 0.17603476 5
-1.1844249 -1.8951793 0.38069457 100.81783 -0.49023643 -0.85244697 0.18166545 5
-1.2284983 -1.7149689 0.3677083 107.62609 -0.55916142 -0.80630744 0.19289047 5
-1.1930691 -1.7523915 0.35999292 112.79963 -0.54924983 -0.81585509 0.18084538 5
-1.2499307 -1.5924122 0.3752003 121.5105 -0.59206337 -0.77842593 0.20860007 5
-1.1165522 -1.5779005 0.37796143 113 -0.55634445 -0.80556691 0.20382029 5
-1.0438036 -1.5523387 0.38075635 95.666664 -0.54061532 -0.81889844 0.19271874 5
-1.2298937 -1.472623 0.37631294 132.90909 -0.52180219 -0.8409611 0.14320208 5
-1.1382287 -1.4424793 0.3889963 144.28572 -0.5288204 -0.81466413 0.23805743 5
-0.93500018 -1.3952065 0.37468243 159.69231 -0.43494105 -0.86964709 0.23353846 5
-0.87174577 -1.3754396 0.36055985 156.08421 -0.52406532 -0.81980008 0.2308318 5
-0.9066931 -1.3341365 0.38291875 148.875 -0.56226343 -0.759803 0.32643408 5
-0.83563638 -1.2580361 0.37342492 111.15083 -0.46411246 -0.85344148 0.23714417 5
-0.90368134 -1.0695854 0.38409698 109.54166 -0.63524556 -0.71170974 0.29988727 5
-0.85434538 -1.1239015 0.37215897 108.7051 -0.58788347 -0.75270194 0.29636601 5
-0.91294044 -0.94189411 0.37511936 109.00735 -0.65192389 -0.69208562 0.30985916 5
-0.88288224 -0.99309093 0.38271421 107.478 -0.6364035 -0.71052492 0.30024162 5
-0.92286009 -0.81772089 0.3808535 110.57639 -0.68948114 -0.64598578 0.32759446 5
-0.88966626 -0.84558308 0.37459117 112.31881 -0.68295634 -0.65711761 0.31900969 5
-1.4355179 -0.67913175 0.37294307 122.14336 -0.83284348 -0.48834917 0.26055124 5
-1.2771268 -0.66085172 0.3689141 52.375 -0.52545643 -0.83342677 0.17115872 5
-1.1327925 -0.64535892 0.36332598 22.568548 -0.47127968 -0.85269505 0.22540329 5
-0.95947081 -0.68499541 0.3835265 100.26554 -0.76235777 -0.5536297 0.33511907 5
-0.8920939 -0.69089079 0.38195348 120.5 -0.69656086 -0.62020922 0.36075404 5
7.4050999 -0.60967028 0.38812596 2 0.94909173 -0.3146984 0.013779427 5
-1.4144655 -0.49454656 0.40475234 80.26786 -0.93587399 -0.24610238 0.25213784 5
-1.2680044 -0.52121508 0.37190834 36 -0.65028709 -0.70346147 0.28682485 5
-1.0969206 -0.53938025 0.37079677 62.992241 -0.65968847 -0.68449086 0.3102957 5
-1.0117832 -0.5087887 0.38313454 68.794586 -0.85675853 -0.36659613 0.36272854 5
7.1859999 -0.55171037 0.41096875 1 0.99630666 -0.065416157 0.055621259 5
7.2621961 -0.49984264 0.38702738 3.8426793 0.99705172 -0.048554607 0.059416845 5
7.4005623 -0.54114306 0.36588421 0.83333331 0.99654901 0.010591941 0.082327835 5
-1.5306373 -0.30528879 0.39535931 96 -0.94748122 -0.18477355 0.26103276 5
-1.4170005 -0.39294937 0.37297037 113.68333 -0.89098519 -0.32733163 0.31464157 5
-1.2694206 -0.40353981 0.37186569 54.166668 -0.87373626 -0.35958293 0.32754388 5
-1.0794671 -0.36300215 0.37652135 68.503456 -0.8146891 -0.45000529 0.36575511 5
-1.0298307 -0.38924867 0.37898907 67.078949 -0.84302527 -0.41419646 0.34314692 5
7.3068924 -0.40625548 0.3466523 2.4548609 0.99677229 -0.058051106 0.055453125 5
7.3776417 -0.37466702 0.35162461 0.75 0.99649781 -0.062443633 0.055612743 5
-1.5352141 -0.19747144 0.38992104 85.2995 -0.91645163 -0.24430488 0.31690916 5
-1.4357544 -0.20282519 0.36627078 53.534828 -0.86866081 -0.36320686 0.33691135 5
-1.277126 -0.17374907 0.36056668 34.731709 -0.88154596 -0.35421553 0.31210262 5
-1.0845982 -0.21689777 0.37695 65.861771 -0.89607358 -0.22778951 0.38100424 5
-1.0401049 -0.25707188 0.37103906 64.556587 -0.84896433 -0.33139744 0.4116253 5
7.3285813 -0.23833841 0.33142292 0.66666669 0.99805051 -0.034554664 0.051973213 5
7.3995209 -0.2068187 0.37509206 0.25 0.99790984 -0.018901227 0.061796963 5
-1.5544715 -0.068315193 0.38934386 101.81358 -0.95185989 -0.12964085 0.2777698 5
-1.4391003 -0.11165316 0.39897764 125 -0.93326193 -0.15769348 0.3227303 5
-1.248809 -0.1329485 0.33071899 118.3148 -0.93982923 -0.18813735 0.28517583 5
-1.1097671 -0.13437796 0.37686306 59.711441 -0.79780132 -0.43390152 0.41861975 5
-1.0326445 -0.13998374 0.346984 52 -0.43807843 -0.80647129 0.39710373 5
6.6452522 -0.037118699 0.30249047 4 0.99924266 -0.0011850094 0.038892526 5
7.1788411 -0.024788998 0.37343717 54.580002 0.99825037 -0.0037829007 0.059006888 5
7.2571025 -0.044840004 0.38706887 25.506493 0.99841547 -0.0044590491 0.056096245 5
7.3628831 -0.10307974 0.4140586 3.3333333 0.99790984 -0.018901229 0.061796963 5
-1.5832937 0.094793819 0.38581601 102.8596 -0.96249783 0.007200242 0.27119401 5
6.6518278 0.10864713 0.32262987 1.6956521 0.99821061 0.04910475 0.034121357 5
6.8290873 0.1038731 0.31480294 12.5 0.99051303 0.12736849 0.051586155 5
6.9948034 0.12071596 0.32759058 14.4 0.99780166 -0.0045263534 0.06611573 5
7.1480141 0.078170747 0.37851566 74.30072 0.99826074 0.011378706 0.057845306 5
7.2115436 0.029781539 0.39918122 78.42308 0.99819565 0.016162209 0.057829544 5
-1.6870013 0.21266899 0.365246 21.580248 -0.96309179 0.091989979 0.25296637 5
-1.6043541 0.17980069 0.38155836 85.269142 -0.96243829 0.062708169 0.26415938 5
6.5853615 0.22270915 0.33741432 6.4000001 0.99800277 0.034382567 0.052992944 5
6.6550803 0.21477686 0.32982132 6.6428571 0.99785775 0.040958211 0.051012341 5
6.8128624 0.22283432 0.33185002 12.555555 0.99579585 0.064062729 0.065471329 5
7.0000916 0.25231463 0.36205554 82.625237 0.99563515 0.077201486 0.052446753 5
7.1002769 0.18126933 0.37043816 79.950974 0.99769795 0.036587249 0.057097007 5
7.2086568 0.16589065 0.36883411 67 0.99798739 0.0074821445 0.062970124 5
-4.9160585 0.43437088 0.42228395 63 -0.99151182 0.094630875 0.089159325 5
-1.711518 0.37955239 0.31626612 18.200001 -0.94470215 0.2638672 0.19470988 5
6.667038 0.34381387 0.33107108 0.5 0.9478994 -0.30284533 0.0988506 5
6.8995099 0.30287537 0.31311083 103 0.99851805 0.019906612 0.050649196 5
6.9773951 0.37287316 0.36910304 88.505127 0.99434489 0.089647003 0.056935571 5
7.0658064 0.3144446 0.30812931 133.5 0.99774802 0.040544245 0.053433001 5
-4.9501433 0.47244662 0.44512978 83 -0.9895398 0.09505631 0.10851359 5
-4.9473071 0.57490659 0.44607267 87 -0.99151182 0.094630875 0.089159325 5
-1.684007 0.54986161 0.34247166 30.382812 -0.87380028 0.44904721 0.18662719 5
-1.6133273 0.55222005 0.32666245 43.830513 -0.92725718 0.3206943 0.19325976 5
-1.3812871 0.57396889 0.31402469 85.75 -0.89814085 0.37511966 0.22940835 5
-1.2262355 0.58089566 0.31656739 35.214104 -0.88796538 0.3964932 0.23304668 5
-1.1962744 0.56104589 0.32860139 22.299999 -0.87744218 0.41329789 0.24347495 5
6.8869815 0.5501855 0.35093817 92.5 0.99405116 0.089894988 0.061490573 5
6.9470682 0.52181482 0.37433007 90.919052 0.99120808 0.11793197 0.05998832 5
-4.9570518 0.6125983 0.41321751 85 -0.99151182 0.094630875 0.089159325 5
-1.8288064 0.71146142 0.41848865 3.03 -0.90995163 0.33337727 0.24667323 5
-1.7446271 0.65443814 0.40624022 15.787788 -0.89146769 0.39767405 0.21711923 5
-1.5916665 0.65386313 0.3309409 52.964287 -0.9113993 0.35704586 0.20462088 5
-1.4427624 0.66761053 0.32434955 70.3125 -0.93686187 0.28789848 0.19850495 5
-1.2477548 0.66256195 0.3249175 39.430519 -0.88653618 0.38192973 0.26111946 5
-1.1967689 0.70035738 0.31991187 107 -0.85229629 0.46989113 0.22976808 5
6.5494022 0.7130543 0.33873984 8.6111107 0.99445873 0.088413313 0.056877449 5
6.6724644 0.70563245 0.34322718 15.090909 0.93107235 0.36186722 0.046437018 5
6.8763943 0.69577467 0.37365824 66.482323 0.98888063 0.13840365 0.054400735 5
6.924273 0.66170555 0.39156672 94.199303 0.988437 0.13886693 0.060895748 5
-1.8470241 0.8182165 0.42140087 3.90625 -0.93056583 0.30123466 0.20809858 5
-1.7268451 0.82900017 0.37449527 31.166666 -0.92266023 0.32459238 0.20817748 5
-1.5799196 0.82617843 0.32089344 59.346153 -0.95219612 0.21787336 0.21413477 5
